ply
format ascii 1.0
comment Created by Open3D
element vertex 1980
property double x
property double y
property double z
end_header
200.12 204.952 470.432
34.1176 -8.14612 468.674
117.929 203.997 470.506
-19.5318 21.7584 468.997
98.1701 203.72 470.521
-32.3616 -8.07794 468.728
76.8492 228.059 470.747
-19.5279 13.881 468.905
80.8756 212.383 470.592
192.108 204.942 470.409
34.0295 -12.2167 468.603
-32.3589 -10.1482 468.69
148.043 204.519 470.445
-32.3305 -6.06584 468.707
-32.3267 -12.1589 468.651
126.124 204.126 470.445
120.189 204.105 470.449
160.204 204.944 470.414
77.5611 224.022 470.669
-19.53 23.8285 468.953
89.5047 205.098 470.482
81.4959 211.493 470.546
-19.5283 19.8898 468.913
-19.5302 25.9011 468.961
124.04 204.118 470.425
24.2218 6.66852 468.736
-19.527 18.0238 468.882
-32.3211 -4.08592 468.687
102.123 203.727 470.428
100.137 203.703 470.427
154.163 204.885 470.374
156.06 204.832 470.361
78.6765 217.82 470.539
122.103 204.093 470.369
22.1665 7.958 468.691
34.0045 -5.93547 468.541
75.8954 233.998 470.656
-32.2154 -2.25525 468.607
77.9093 221.826 470.51
34.0604 -0.239517 468.543
76.2588 231.843 470.589
-25.7292 5.59031 468.642
-32.256 1.93596 468.608
-19.5173 9.73198 468.647
33.9559 -2.30744 468.481
20.1772 27.6845 468.75
76.58 229.896 470.519
-31.7894 3.81511 468.583
34.0268 1.86262 468.489
33.8918 -4.14011 468.415
-32.1763 -0.280668 468.512
77.3321 225.708 470.431
79.4539 215.449 470.335
33.8197 3.89464 468.46
175.677 204.809 470.103
27.8913 6.00184 468.438
-21.8373 6.51965 468.447
-20.0779 7.94256 468.438
20.3935 21.7162 468.509
20.3903 13.8277 468.435
20.3079 23.8598 468.509
20.3908 18.0072 468.448
158.086 204.863 469.988
-23.4375 6.00094 468.367
20.3892 15.9558 468.412
20.4362 11.7954 468.36
20.2336 25.8731 468.455
-18.0034 27.8281 468.51
20.2745 19.9221 468.394
20.5022 9.79356 468.292
211.865 204.859 469.742
-18.4349 9.84093 468.207
162.688 204.877 469.783
206.673 204.856 469.735
208.532 204.848 469.715
204.59 204.849 469.719
209.974 204.837 469.69
192.127 204.838 469.694
-18.4612 13.9096 468.126
-18.288 11.72 468.101
18.4725 28.1079 468.135
20.8998 8.33866 467.934
77.1778 227.329 469.853
-18.3251 16.0354 468.013
-18.4172 21.7562 468.059
-18.3626 18.0654 468.008
-18.3323 19.7685 468.004
30.1269 5.58035 467.807
-18.3534 25.8834 468.015
-18.3991 23.8168 467.983
22.8911 6.82023 467.784
33.4201 -6.26802 467.612
-20.5145 6.82025 467.785
33.421 -0.0695086 467.625
-18.6516 8.4726 467.719
33.4154 -2.68628 467.546
23.7079 6.40416 467.587
18.9631 26.2482 467.763
-14.5214 28.7318 467.818
194.614 204.823 469.184
18.9602 20.0447 467.692
33.4038 -7.95156 467.383
18.9591 22.11 467.666
33.4006 -11.9774 467.338
18.9588 23.9693 467.657
19.3694 19.8338 467.592
33.4046 2.68414 467.394
21.6353 7.22839 467.446
19.3684 22.1054 467.569
33.403 3.09703 467.372
19.3683 23.1383 467.567
19.3647 14.0455 467.481
33.3938 -10.22 467.244
191.988 204.957 469.016
77.0933 228.324 469.338
207.858 204.939 468.974
19.3612 11.7711 467.395
184.154 205.133 468.945
19.361 15.7981 467.391
19.4962 9.63569 467.33
195.811 204.91 468.908
178.231 205.103 468.928
114.123 203.898 468.963
174.193 204.701 468.903
90.5425 204.687 468.967
19.3593 17.9651 467.349
180.089 205.115 468.851
152.004 204.704 468.843
-31.2159 -10.1134 467.084
186.212 205.155 468.807
78.9377 218.346 469.032
182.097 205.095 468.805
206.16 204.927 468.758
216.427 204.922 468.745
-31.215 -8.04945 467.07
-17.2337 27.3003 467.375
218.178 205.181 468.738
112.135 203.864 468.834
210.288 204.913 468.725
-31.0136 3.50849 467.149
-31.2153 -4.12822 467.074
172.064 204.633 468.749
-31.2136 -5.98538 467.049
204.21 204.941 468.709
86.7894 206.62 468.84
190.277 204.929 468.715
-17.5135 13.8057 467.183
176.604 205.028 468.705
116.167 203.923 468.757
162.02 204.941 468.709
-31.2063 -12.1735 466.941
-17.4213 15.8056 467.18
-17.61 9.81031 467.124
188.139 205.017 468.678
168.108 204.608 468.692
134.153 204.489 468.72
-19.2455 7.53241 467.082
165.616 204.944 468.67
140.206 204.551 468.689
169.957 204.59 468.65
-17.3915 20.1698 467.171
160.016 204.899 468.645
94.1212 203.841 468.702
108.138 203.747 468.67
200.073 204.946 468.585
198.195 204.924 468.585
110.115 203.767 468.661
213.883 204.963 468.555
146.134 204.404 468.619
-17.3279 25.7703 467.17
138.061 204.58 468.627
-17.3866 11.8256 467.039
130.102 204.341 468.622
-17.3883 17.8959 467.085
92.1133 204.289 468.655
84.5808 208.36 468.694
89.7608 205.095 468.656
142.072 204.326 468.588
106.167 203.742 468.605
79.6067 215.954 468.734
-17.3504 21.932 467.075
202.488 204.982 468.506
166.398 204.703 468.539
96.1128 203.717 468.6
-17.3588 23.7042 467.086
-31.1517 1.70109 466.895
118.251 203.934 468.571
32.4344 -12.2624 466.69
126.146 204.156 468.553
-31.1125 -0.147807 466.86
156.164 204.782 468.521
128.099 204.267 468.544
164.11 204.943 468.511
-31.1107 -2.3286 466.833
80.9856 212.671 468.663
132.098 204.436 468.534
85.7727 207.366 468.605
83.5662 209.407 468.618
80.4608 213.913 468.661
76.9468 229.901 468.807
88.1485 205.842 468.577
148.214 204.41 468.502
17.7908 27.5408 467.034
79.2621 217.233 468.676
82.7191 210.266 468.609
98.077 203.71 468.531
122.082 204.025 468.493
194.148 204.933 468.42
158.088 204.803 468.454
104.069 203.687 468.479
136.053 204.525 468.448
201.854 204.844 468.379
211.805 204.85 468.365
154.02 204.822 468.422
175.454 204.688 468.399
32.7278 -10.1024 466.576
214.641 204.863 468.328
32.629 -2.26871 466.635
20.0559 7.88789 466.737
32.6247 -8.00651 466.574
78.0116 223.837 468.627
78.3808 221.715 468.607
76.7245 231.816 468.699
81.76 211.72 468.512
120.258 204.035 468.378
190.082 204.825 468.309
124.116 204.048 468.356
102.088 203.657 468.357
150.085 204.466 468.314
32.5819 -5.97867 466.528
212.637 204.895 468.243
-19.7889 6.56854 466.682
78.7073 219.924 468.503
100.104 203.622 468.329
144.235 204.407 468.282
77.6777 225.868 468.544
18.0962 17.9406 466.714
-21.7021 5.97886 466.644
18.0952 15.8774 466.687
32.4173 4.04528 466.555
18.0264 25.7438 466.764
26.3364 5.97782 466.563
18.0586 23.7332 466.713
22.1534 6.56668 466.546
77.4273 227.676 468.492
-30.0133 4.08832 466.57
18.0118 21.8976 466.666
18.0914 13.8125 466.59
32.5101 -4.12227 466.408
18.0893 11.7495 466.537
200.154 204.824 468.081
32.5385 -0.177257 466.393
17.9787 19.9972 466.585
-17.7586 7.99739 466.509
208.229 204.824 468.036
32.5078 1.854 466.377
196.071 204.809 468.046
192.276 204.823 468.034
209.845 204.83 468.015
-30.5451 -12.1567 466.297
18.1281 9.92426 466.419
-15.7213 27.627 466.61
-30.5446 -5.97554 466.29
-30.4803 1.99112 466.356
-30.5447 -4.12132 466.292
-30.541 -10.095 466.236
159.995 204.834 467.978
215.901 204.787 467.917
157.098 204.914 467.972
-24.3667 5.56289 466.343
-30.4746 -0.137933 466.269
-28.2778 5.15012 466.284
206.255 204.859 467.846
-30.4671 -8.17083 466.155
197.361 204.854 467.834
204.315 204.849 467.821
-12.4179 28.6473 466.442
162.014 204.856 467.838
18.4882 8.54823 466.206
30.1575 5.28615 466.157
-16.0251 9.93502 466.224
-16.0441 13.8026 466.257
16.2157 27.9471 466.334
188.853 204.818 467.752
-30.4134 -2.2072 466.082
-16.1201 17.9217 466.223
31.2494 5.14757 466.052
-15.9979 15.7637 466.19
-14.0619 28.1354 466.299
-15.857 11.7177 466.135
-15.9024 19.9371 466.195
-15.9898 21.9108 466.176
20.5387 6.79412 465.993
77.2758 229.501 467.932
-15.9436 25.7881 466.131
-16.0331 23.8749 466.086
-16.3571 8.3581 465.937
16.8327 23.8159 466.006
-18.3713 6.79201 465.848
16.827 11.7321 465.846
16.7604 17.9779 465.901
16.8263 15.8482 465.827
16.5551 25.7786 465.915
16.8234 10.2891 465.747
16.5913 21.9645 465.833
16.6859 13.7872 465.739
16.6478 19.8447 465.769
14.2195 28.61 465.836
-14.8678 13.9238 465.716
-14.8676 15.6385 465.712
-14.8681 21.8125 465.728
-14.8679 24.2816 465.722
17.2273 9.2559 465.538
-14.8657 18.3112 465.651
-14.8658 19.1343 465.655
19.4885 7.19836 465.504
-14.8656 25.3066 465.65
210.842 204.909 467.016
212.078 204.907 467.011
217.017 204.894 466.982
213.923 204.895 466.984
-15.2744 22.4222 465.567
-15.2751 24.8919 465.589
189.377 204.904 467.006
205.462 204.894 466.983
201.336 204.895 466.985
174.199 204.675 467.007
86.9095 206.739 467.111
82.7855 210.601 467.132
29.7613 5.13951 465.323
194.723 204.884 466.96
126.144 204.311 467.014
21.3307 6.37292 465.307
178.072 205.06 466.943
-15.2683 11.7203 465.38
-15.2698 17.8911 465.425
188.096 204.996 466.902
-27.3965 5.13939 465.312
-15.2687 16.039 465.394
-15.2699 20.0848 465.429
-29.5194 3.35739 465.285
-15.2706 23.4448 465.45
31.6528 -11.8895 465.061
186.196 205.064 466.849
31.4645 3.67636 465.172
31.3945 1.84913 465.149
182.087 205.035 466.833
116.256 203.9 466.88
31.6553 -9.97416 465.03
31.5334 -2.26117 465.098
-15.2649 13.7738 465.278
124.131 204.219 466.856
180.013 205.022 466.804
-29.6454 -5.9605 465.109
184.227 205.072 466.792
114.002 203.859 466.847
-29.6414 -10.0692 465.045
-29.6438 -4.11063 465.083
164.531 204.903 466.769
144.118 204.326 466.785
-29.6171 1.79024 465.125
15.7205 25.7867 465.295
-16.9053 7.3987 465.16
-29.6156 -0.235348 465.102
-29.6381 -12.1226 464.993
172.153 204.583 466.744
31.3843 -4.10981 464.999
31.5242 -8.04477 464.961
-15.2612 9.86521 465.164
15.3678 27.3431 465.289
31.4851 -5.95857 464.968
31.4414 -0.243425 465.013
15.7883 23.9644 465.239
15.7431 17.8601 465.184
-29.5781 -2.29255 465.045
204.504 204.926 466.68
76.9931 232.373 467.054
166.16 204.722 466.709
15.7626 13.7689 465.121
175.429 204.761 466.681
15.753 22.0157 465.19
15.7738 15.8246 465.133
84.7211 208.58 466.805
168.003 204.552 466.674
-29.6053 -7.95394 464.94
89.6584 205.199 466.737
15.8204 11.7123 465.061
90.6876 204.782 466.728
122.116 204.123 466.689
110.157 203.714 466.695
154.418 204.751 466.657
15.7279 19.9805 465.126
128.207 204.347 466.677
152.118 204.541 466.649
198.284 204.932 466.601
112.123 203.812 466.679
17.8359 7.77099 464.997
15.8838 9.81615 465.008
218.124 205.119 466.556
170.036 204.517 466.595
-13.6918 27.3359 465.166
176.485 204.985 466.565
106.131 203.706 466.625
142.016 204.423 466.593
146.147 204.365 466.583
-15.7206 7.90254 464.964
79.5575 217.791 466.764
140.045 204.532 466.576
108.183 203.688 466.584
120.137 204.053 466.57
138.16 204.477 466.554
94.1172 203.863 466.585
162.173 204.894 466.514
96.2227 203.681 466.567
79.036 220.456 466.728
80.1454 215.799 466.677
80.8117 214.155 466.644
216.009 204.808 466.412
92.1406 204.316 466.534
-13.8763 11.7698 464.898
130.167 204.35 466.474
88.0928 206.041 466.528
158.048 204.792 466.437
85.9776 207.555 466.534
-13.9092 19.9825 464.932
-23.2592 5.54459 464.809
-13.9503 21.9993 464.947
-13.9863 17.854 464.906
134.188 204.427 466.441
78.8312 222.097 466.65
82.0466 211.92 466.551
-13.8623 13.7414 464.853
-14.0223 25.865 464.963
192.233 204.808 466.37
-13.9561 9.87816 464.815
-13.9094 23.9794 464.941
198.004 204.797 466.359
78.1668 225.858 466.67
156.156 204.759 466.394
98.1434 203.603 466.442
77.5218 229.853 466.699
-17.6542 6.54172 464.774
194.179 204.78 466.349
190.289 204.794 466.353
-19.6295 6.02333 464.765
118.173 203.922 466.413
102.212 203.587 466.406
-13.9058 15.87 464.82
83.694 209.776 466.474
162.116 204.821 466.347
104.129 203.622 466.38
136.15 204.406 466.34
14.147 27.6263 464.862
208.233 204.782 466.258
202.208 204.783 466.26
150.15 204.389 466.303
206.166 204.774 466.241
196.074 204.778 466.249
200.101 204.799 466.245
160.034 204.794 466.285
148.104 204.327 466.288
-22.6352 5.54264 464.646
77.8725 227.883 466.554
81.3526 213.299 466.413
132.127 204.402 466.278
214.176 204.781 466.188
188.115 204.792 466.215
28.3446 5.40498 464.567
203.875 204.791 466.186
78.5355 223.825 466.484
210.252 204.742 466.168
19.8889 6.48 464.555
100.073 203.544 466.254
-11.9394 27.7683 464.758
30.6218 -12.209 464.347
163.974 204.809 466.162
212.255 204.804 466.107
79.3259 219.537 466.311
30.1904 4.02664 464.408
77.3323 231.739 466.403
26.2119 5.74496 464.384
-28.3702 4.0567 464.422
-26.5215 5.12916 464.386
217.357 204.849 465.941
-28.5607 -13.3322 464.182
16.1567 8.16075 464.324
30.5105 -0.205775 464.208
-14.1618 8.22855 464.302
30.5094 1.84532 464.193
30.5047 -2.25634 464.121
14.0708 25.914 464.388
14.1051 19.9004 464.327
24.5609 5.94733 464.183
30.8403 -10.1156 464.028
14.1131 13.6995 464.235
-28.6408 -9.9894 464.056
14.1031 17.8462 464.26
30.4994 -4.10128 464.04
14.1046 24.0029 464.309
14.1011 11.8956 464.194
-28.6385 -12.0975 464.019
14.1035 21.9496 464.274
28.2373 -12.5051 463.932
14.1008 15.7923 464.185
30.6297 -7.85878 463.944
14.0986 10.0479 464.11
18.1972 6.76567 464.041
12.3286 28.0051 464.233
30.5128 -5.99048 463.897
-28.5943 -7.8411 463.897
-26.7043 4.71487 464.001
-28.5435 -5.94487 463.904
-16.2892 6.60118 464.002
-12.0233 17.8396 464.087
-10.1014 28.1325 464.177
-12.1482 10.1142 464.015
-28.5434 -2.25537 463.903
-12.0155 11.9271 464.011
-11.9997 15.8059 464.038
-28.5413 -4.09988 463.869
-12.0223 19.9275 464.048
-12.1473 13.758 463.982
-8.2543 28.504 464.109
-12.1379 22.0028 464.029
-28.5398 -0.205565 463.844
-28.5408 1.84401 463.862
-11.9436 25.985 464.026
14.705 8.47064 463.839
-11.9963 23.9689 463.996
83.0577 210.858 465.573
12.656 15.7813 463.859
28.8393 4.71203 463.722
-12.4833 8.67435 463.772
12.6536 13.6266 463.771
12.5188 21.9971 463.835
10.3511 28.337 463.892
12.8571 11.4736 463.718
12.6994 19.7404 463.782
12.8067 17.8778 463.749
12.8297 24.2099 463.785
12.8362 25.934 463.787
-10.2956 15.7755 463.691
-10.296 21.1032 463.706
13.8786 14.5439 463.619
-10.295 17.6183 463.661
29.7455 3.37845 463.475
-10.2956 24.7904 463.692
162.724 204.908 465.141
80.9548 214.646 465.31
8.75818 28.4768 463.667
-11.3182 24.1717 463.614
-11.522 19.6632 463.571
-11.5205 15.6329 463.514
-11.5204 17.8174 463.509
-11.519 11.6719 463.453
85.0347 208.604 465.135
-11.3162 21.7097 463.532
-11.4011 9.85728 463.417
-11.4016 13.6606 463.438
29.631 1.84168 463.286
-11.1117 26.4213 463.548
23.491 5.93614 463.31
154.028 204.617 464.947
210.137 204.744 464.886
185.98 204.972 464.913
184.191 205.035 464.912
182.154 205.007 464.899
29.6247 -0.205197 463.187
126.159 204.256 464.933
-13.5617 7.39793 463.276
15.7776 7.29972 463.233
-9.57332 27.4899 463.434
124.224 204.222 464.889
29.6197 -2.25153 463.109
29.9445 -11.788 463.016
178.037 204.948 464.817
180.064 204.966 464.806
11.8237 27.2301 463.37
120.107 204.166 464.856
-27.4673 -13.2993 463.037
29.6154 -4.29717 463.042
29.6822 -6.06996 463.017
12.1514 13.732 463.214
122.246 204.209 464.826
29.7879 -8.03755 462.994
176.149 204.95 464.771
116.046 203.87 464.821
114.142 203.791 464.82
-17.8564 5.93428 463.164
17.9567 6.42501 463.131
166.197 204.559 464.764
12.228 10.0273 463.161
12.0035 23.8584 463.278
12.0745 11.9715 463.162
11.8985 26.0482 463.286
144.045 204.265 464.758
12.1439 21.8792 463.241
112.13 203.723 464.782
29.8634 -10.0744 462.918
146.234 204.274 464.728
12.1254 15.7572 463.154
172.132 204.542 464.683
27.773 5.1141 463.022
11.9627 17.7796 463.15
11.9721 19.9273 463.161
208.038 204.736 464.595
142.249 204.435 464.661
174.109 204.647 464.626
89.9402 205.294 464.712
-25.4202 5.11403 463.016
78.9632 224.034 464.883
216.222 204.737 464.566
168.08 204.467 464.607
202.074 204.748 464.571
94.2066 203.952 464.666
218.17 205.29 464.544
196.104 204.735 464.561
92.1816 204.445 464.664
170.124 204.456 464.581
140.162 204.469 464.611
-27.5907 -12.0659 462.814
110.19 203.649 464.613
-9.87286 19.8464 463.067
88.122 206.308 464.654
10.0779 27.5221 463.113
-27.5905 -10.0436 462.811
96.0262 203.651 464.618
199.979 204.75 464.517
106.08 203.641 464.595
138.094 204.447 464.561
108.131 203.636 464.585
206.17 204.743 464.488
118.186 204.042 464.573
82.4606 211.964 464.673
190.067 204.724 464.49
-27.4245 3.71531 462.888
-9.87286 25.9847 463.067
-9.83291 11.9563 462.939
102.047 203.539 464.551
-9.85515 23.9029 463.036
14.0833 7.77151 462.863
152.032 204.419 464.497
-9.83526 17.8144 462.971
128.135 204.296 464.515
80.6531 215.912 464.667
-9.90551 13.7752 462.93
204.234 204.747 464.427
-9.85297 15.7498 462.936
80.1162 217.776 464.667
-27.5457 -8.0469 462.733
-27.4501 -6.13461 462.746
197.77 205.003 464.424
104.122 203.625 464.507
78.742 225.761 464.733
86.1172 207.804 464.555
156.209 204.721 464.45
-11.8385 7.88266 462.838
212.118 204.782 464.39
164.12 204.752 464.437
-21.5242 5.52086 462.82
214.106 204.689 464.378
84.0424 209.856 464.553
78.0147 229.955 464.741
79.405 221.944 464.664
-9.85321 21.9208 462.944
148.111 204.338 464.429
134.048 204.338 464.441
198.117 204.776 464.375
130.158 204.291 464.44
132.277 204.297 464.42
186.337 204.813 464.367
79.7593 219.898 464.612
192.106 204.71 464.353
100.194 203.517 464.429
-9.86698 10.0193 462.79
158.09 204.717 464.37
136.104 204.392 464.384
-27.446 -2.24945 462.678
-15.8628 6.26989 462.742
160.262 204.745 464.358
-27.4442 -4.29332 462.646
81.5387 213.874 464.493
-7.75167 27.708 462.899
-25.9381 -13.4217 462.542
162.21 204.776 464.323
-27.445 -0.205098 462.66
201.81 204.938 464.277
-27.4457 1.83934 462.672
216.979 204.927 464.252
98.1348 203.554 464.353
188.038 204.705 464.267
77.775 231.893 464.627
26.3179 5.41625 462.617
194.207 204.72 464.248
10.1734 23.9247 462.796
150.112 204.32 464.273
10.1726 21.8778 462.758
10.1732 25.969 462.787
10.1713 17.7863 462.7
10.1713 19.8308 462.701
16.2094 6.5173 462.573
87.344 206.999 464.3
28.3657 -11.7203 462.376
28.3045 3.959 462.511
203.393 204.88 464.145
10.1698 15.7394 462.63
10.1347 12.0246 462.585
78.4373 227.937 464.452
10.2076 13.8495 462.583
-14.0392 6.56189 462.518
91.4221 204.892 464.173
10.1665 10.0127 462.483
8.05673 27.7299 462.596
28.6508 1.83786 462.331
12.2689 8.15175 462.396
90.9936 204.851 464.08
-26.201 4.12632 462.354
79.2858 223.613 464.206
-5.77337 27.7919 462.492
-7.85188 13.7984 462.356
-7.77887 11.9811 462.337
177.455 204.767 463.891
-10.0069 8.1382 462.301
-7.81545 19.8179 462.402
22.2117 5.92248 462.243
-7.8146 15.7298 462.348
-7.81347 10.0083 462.281
81.1446 215.087 464.044
-7.81515 21.8603 462.385
28.5987 -2.27816 462.124
-7.81563 25.9478 462.41
28.533 -6.12576 462.077
28.5319 -7.96298 462.06
-7.81512 23.9033 462.384
-7.81411 17.7716 462.319
28.5344 -0.204839 462.1
28.5314 -4.28792 462.052
-26.5971 -0.204807 462.139
6.07757 27.7828 462.34
28.5264 -10.0028 461.972
-26.5882 -7.96167 461.985
83.1605 211.104 463.852
-26.5889 -6.12476 461.998
-26.5901 -2.24626 462.017
-26.5882 -4.2872 461.984
-26.5841 -12.0425 461.913
-26.5899 1.83669 462.015
-26.5825 -10.0009 461.885
8.11587 15.7207 462.081
8.15069 21.8139 462.123
8.18698 17.7804 462.087
-8.2851 8.50546 462.015
14.4826 6.65389 461.972
8.11681 23.8904 462.133
10.2236 8.47096 461.988
8.11701 25.9331 462.147
8.116 19.8046 462.089
8.11484 13.8814 462.022
-2.01155 28.0163 462.149
-12.4004 6.63331 461.959
-0.119355 28.0768 462.138
8.11386 12.0426 461.969
1.5818 15.5129 461.976
4.13419 28.0729 462.073
185.487 204.993 463.474
1.58174 18.37 461.957
8.1899 10.1355 461.873
-3.77139 27.8325 462.036
-24.3343 5.10085 461.823
2.02727 28.1149 462.001
1.85337 12.1758 461.852
1.98946 13.8763 461.85
4.84611 12.0387 461.812
-6.02738 13.8757 461.833
-5.90801 15.7331 461.845
4.8463 15.304 461.83
-5.94314 11.9873 461.8
-5.91571 19.8374 461.855
-5.82337 17.7724 461.834
4.84645 20.2021 461.845
6.27477 19.8955 461.83
-5.94954 25.9191 461.897
-5.90812 21.9168 461.854
6.22702 15.522 461.777
-5.79947 23.8423 461.862
-5.95421 10.2141 461.739
4.60071 13.751 461.755
-1.68339 12.0368 461.745
6.2617 26.1075 461.863
8.72108 8.77161 461.701
6.25485 12.1849 461.732
1.5812 19.7923 461.801
6.37555 13.924 461.742
-0.867269 12.8527 461.736
4.84568 17.5466 461.771
-0.704081 13.7505 461.74
6.68101 10.8117 461.702
6.3843 21.9581 461.799
-3.64217 17.7502 461.762
6.26377 23.809 461.806
6.23762 17.7496 461.747
-2.09125 13.464 461.711
-3.72316 11.9673 461.687
-3.58708 10.675 461.674
-3.64162 13.7491 461.695
-2.09127 15.9122 461.711
-3.64156 15.5441 461.688
-0.867158 15.707 461.677
-1.68317 16.9312 461.685
-3.85939 22.1006 461.713
-3.62142 23.461 461.721
-3.72365 26.0737 461.743
-0.86716 19.3789 461.678
-3.85906 19.2429 461.678
78.9942 226.283 463.457
-5.47618 9.66646 461.569
-2.49907 21.4184 461.669
21.1561 5.91294 461.499
-5.44453 12.1231 461.577
-5.45634 17.6427 461.618
-5.14961 13.8672 461.549
7.29164 22.6397 461.615
27.4644 -11.4145 461.277
-5.28608 19.6473 461.592
81.0115 216.167 463.283
-5.19103 21.4971 461.605
5.89674 15.9056 461.523
184.083 204.951 463.033
178.489 204.932 463.029
-5.02771 25.9018 461.59
-5.18973 15.619 461.49
7.69634 9.27597 461.419
5.97056 19.7318 461.512
5.45515 24.064 461.546
7.2896 17.5357 461.485
-4.94575 24.6763 461.556
-3.31433 27.1244 461.571
5.70921 17.7391 461.476
5.86163 13.8297 461.433
182.13 204.946 462.972
155.937 204.626 462.991
6.01164 9.91788 461.381
11.9348 7.21535 461.328
5.78077 25.6108 461.49
27.4561 -9.98472 461.139
180.15 204.95 462.915
5.72565 21.6794 461.433
-1.68243 27.3233 461.485
27.5494 3.46403 461.237
5.91852 11.9095 461.328
27.6015 1.8335 461.209
-3.76922 24.0464 461.44
-9.35915 7.40503 461.29
0.0507644 27.2707 461.458
27.4544 -7.94666 461.11
25.7075 5.17555 461.201
172.208 204.543 462.854
-3.7201 12.0465 461.291
-3.70214 21.7751 461.367
-25.4574 3.70171 461.219
-3.72089 25.8501 461.395
-3.74069 17.7333 461.321
114.166 203.686 462.883
-3.74414 15.8861 461.303
27.5559 -2.20777 461.102
146.071 204.203 462.846
3.87324 27.2661 461.378
-3.70175 19.8456 461.317
27.4539 -0.204458 461.101
-25.7213 -7.94604 461.077
-3.74244 14.062 461.252
-3.73799 9.89244 461.211
-15.5384 5.90894 461.187
116.11 203.741 462.841
-25.3107 -13.2414 461.02
4.02587 25.8881 461.344
27.4499 -4.27849 461.033
3.82094 12.0228 461.204
-1.8858 25.8875 461.334
-1.89609 12.0228 461.205
27.4482 -6.11158 461.005
-19.8166 5.50104 461.158
-1.85635 15.7499 461.23
-25.7201 -6.1123 461.057
1.94204 27.2914 461.328
-1.88554 19.7689 461.259
91.3634 204.916 462.838
-1.85342 21.8291 461.271
112.213 203.671 462.797
-1.89616 17.7726 461.229
-7.64389 7.7747 461.143
10.0737 7.47554 461.118
-1.88563 23.8461 461.278
94.0537 204.03 462.811
215.925 204.686 462.679
126.165 204.194 462.762
121.952 204.088 462.764
4.02399 9.98332 461.127
214.332 204.547 462.671
-25.6188 -12.0415 460.957
208.162 204.601 462.667
176.124 204.826 462.702
-1.885 9.98318 461.119
200.203 204.683 462.671
217.732 205.244 462.657
3.79778 14.0587 461.145
13.9652 6.39641 461.065
170.251 204.444 462.697
-25.7179 -2.24139 461.017
-25.7138 -9.98044 460.943
4.0248 23.843 461.216
120.228 204.018 462.724
-1.83408 14.0327 461.125
166.153 204.432 462.67
-0.0514035 15.8047 461.131
-0.0512106 21.803 461.174
210.077 204.643 462.608
196.218 204.65 462.622
88.381 206.41 462.749
168.187 204.42 462.642
-25.7163 -0.204352 460.988
-11.6912 6.37281 461.03
154.085 204.424 462.65
-0.0172889 19.7805 461.132
-25.7136 -4.27772 460.94
1.9867 25.8789 461.182
110.14 203.618 462.676
-25.7163 1.83256 460.988
-23.4771 5.09193 461.015
177.843 204.847 462.616
-0.0174274 11.9846 461.046
164.112 204.568 462.616
-0.0512147 23.8395 461.148
138.137 204.419 462.64
4.02404 21.8007 461.125
82.7618 212.328 462.769
92.2445 204.571 462.689
3.86844 17.763 461.088
80.6775 217.82 462.814
20.1128 5.90592 460.951
-0.0513078 25.8773 461.152
2.02157 17.6706 461.074
204.059 204.678 462.557
1.98608 21.7998 461.105
1.98636 23.8381 461.122
-0.0513171 17.7235 461.068
-0.051171 9.98049 460.997
206.063 204.632 462.544
144.019 204.267 462.604
90.1718 205.427 462.67
2.05796 15.9251 461.043
174.088 204.634 462.571
128.044 204.202 462.612
2.0215 19.7607 461.064
132.032 204.236 462.595
3.9526 19.7245 461.051
182.252 204.853 462.541
84.4185 210.007 462.685
140.07 204.413 462.574
187.968 204.623 462.523
212.174 204.612 462.498
1.98562 9.97947 460.95
3.95875 15.8769 461.002
96.0851 203.651 462.597
141.995 204.382 462.556
108.066 203.563 462.553
78.9281 228.144 462.804
0.175165 14.0527 460.945
86.2946 208.097 462.611
136.149 204.345 462.523
78.6192 229.994 462.802
192.333 204.695 462.454
106.131 203.576 462.53
160.116 204.674 462.476
2.00393 11.9957 460.884
8.04086 7.87034 460.839
26.0599 -11.6314 460.636
185.95 204.662 462.419
152.177 204.333 462.445
-5.75252 7.94103 460.826
79.68 223.861 462.685
80.0022 221.803 462.657
80.4073 219.748 462.635
148.152 204.222 462.424
194.039 204.662 462.381
104.163 203.523 462.461
24.0795 -12.1246 460.59
99.9944 203.442 462.462
102.119 203.466 462.459
198.117 204.654 462.362
2.00379 14.0308 460.829
87.4921 207.087 462.482
98.118 203.49 462.437
202.103 204.687 462.32
82.0563 213.901 462.523
175.84 204.899 462.339
118.344 203.845 462.381
150.099 204.286 462.338
161.938 204.681 462.308
134.158 204.275 462.314
189.994 204.637 462.259
26.193 3.995 460.609
83.4654 211.472 462.418
81.4097 215.708 462.445
6.05502 7.93757 460.625
130.083 204.233 462.27
79.4421 225.81 462.489
12.159 6.51146 460.549
216.787 204.995 462.095
-9.81848 6.51102 460.521
-13.7497 5.96726 460.432
-3.74701 7.96813 460.436
24.2908 5.35611 460.361
26.3906 1.83 460.321
26.3567 -10.0457 460.201
4.01728 8.13642 460.372
85.2974 209.287 462.104
-24.1079 3.91871 460.356
26.3841 -6.30423 460.208
26.385 -4.27093 460.224
26.3871 -0.203918 460.26
26.4498 -7.9982 460.172
26.3339 -2.23749 460.217
184.655 204.706 461.904
22.3103 -12.4009 460.068
-0.112119 8.11426 460.271
-1.90411 8.02166 460.271
-22.2181 5.08349 460.251
79.2583 227.432 462.132
-24.6516 -2.23704 460.13
-24.2386 -13.2123 460.007
-24.649 -4.26979 460.081
-24.4826 -12.0741 460.007
-24.5924 -6.33913 460.057
1.98229 8.1326 460.159
-24.5574 1.82898 460.095
-24.5034 -9.95971 459.987
-18.5518 5.48861 460.116
-24.5767 -8.19839 459.992
10.2659 6.55553 460.078
-7.95044 6.59196 460.089
-24.5915 -0.277894 460.041
18.6501 5.89424 460.04
81.1649 217.528 461.826
-22.8156 4.67425 460.004
178.412 204.977 461.594
182.132 204.917 461.458
6.8567 6.70388 459.803
176.103 204.9 461.421
-5.84146 6.70403 459.813
8.27868 6.70373 459.793
25.6174 -9.70751 459.59
24.5275 4.6713 459.714
25.6164 -8.24508 459.572
81.1088 218.601 461.507
25.5997 -6.15954 459.515
-3.70678 6.70173 459.656
25.5304 -4.26413 459.487
25.5322 3.45113 459.518
25.5277 -2.23368 459.438
25.5274 -0.203607 459.433
17.6123 5.88711 459.483
25.5275 1.82635 459.434
4.00955 7.10533 459.487
-23.3895 -13.192 459.299
79.0498 230.085 461.391
0.192633 7.186 459.452
-21.1627 5.07431 459.42
-1.67467 7.10348 459.368
83.0803 212.514 461.131
-2.89249 7.10331 459.357
180.401 204.891 460.942
1.97859 7.1028 459.324
205.981 204.555 460.873
-23.5479 -8.06029 459.145
-23.4823 -9.94118 459.126
-23.5197 -11.8753 459.094
-23.5856 -4.26122 459.162
-23.5865 -2.23243 459.179
-7.35608 6.28973 459.233
-23.5305 3.56478 459.218
80.8946 220.087 461.061
-23.5871 1.82547 459.192
-23.5572 -0.145646 459.174
-23.5542 -6.26037 459.115
114.184 203.627 460.847
9.48472 6.28883 459.167
-17.5 5.47752 459.186
24.0609 -11.3804 458.988
188.113 204.519 460.766
117.873 203.705 460.825
157.942 204.481 460.782
112.141 203.614 460.817
180.073 204.809 460.757
126.129 204.103 460.806
212.109 204.546 460.716
164.246 204.404 460.762
170.073 204.456 460.755
142.143 204.377 460.753
88.636 206.582 460.827
-5.66341 6.35572 459.11
146.035 204.145 460.729
213.981 204.559 460.654
144.266 204.308 460.722
178.06 204.828 460.685
185.995 204.568 460.674
194.313 204.564 460.663
156.08 204.374 460.696
23.6793 5.06994 459.024
168.084 204.367 460.678
166.252 204.367 460.679
172.059 204.505 460.673
215.689 204.681 460.623
128.195 204.142 460.707
176.039 204.789 460.661
94.028 204.131 460.729
5.94375 6.46737 459.027
-11.6119 5.8812 459.022
90.1088 205.743 460.723
210.071 204.576 460.577
110.069 203.548 460.668
174.024 204.67 460.596
130.211 204.195 460.636
7.92542 6.35354 458.951
191.976 204.588 460.551
92.5191 204.599 460.65
91.5419 205.032 460.649
84.7056 210.392 460.703
207.98 204.572 460.515
16.1714 5.8798 458.912
160.104 204.518 460.559
162.338 204.444 460.546
81.9213 215.775 460.727
202.242 204.572 460.498
200.076 204.626 460.498
140.159 204.311 460.553
20.4207 -12.3643 458.708
80.6292 222.031 460.765
96.0675 203.68 460.577
132.18 204.173 460.534
22.3411 5.29333 458.841
104.138 203.494 460.546
136.078 204.296 460.518
86.6471 208.279 460.596
152.143 204.281 460.484
184.074 204.673 460.452
108.111 203.503 460.516
106.167 203.481 460.517
204.325 204.579 460.424
198.306 204.561 460.429
82.6117 213.969 460.629
-3.70017 6.43643 458.834
196.143 204.575 460.413
190.183 204.603 460.419
150.249 204.214 460.447
138.095 204.269 460.458
85.637 209.398 460.552
182.219 204.781 460.39
98.1043 203.431 460.455
87.7125 207.336 460.493
-1.8752 6.48597 458.749
122.212 203.839 460.405
24.1742 3.71525 458.693
80.3427 223.882 460.625
100.12 203.352 460.41
154.042 204.243 460.349
216.671 205.047 460.287
83.8283 211.783 460.484
24.3004 -10.0826 458.524
120.071 203.76 460.354
102.061 203.41 460.356
24.2656 -0.20321 458.592
-21.9314 -13.1692 458.507
80.0708 225.772 460.565
-0.0509496 6.48476 458.662
79.7247 227.931 460.582
24.2647 1.82301 458.576
148.232 204.165 460.275
134.091 204.217 460.29
-20.0119 5.06555 458.627
24.295 -2.21231 458.51
24.2599 -4.25491 458.486
24.2241 -8.27207 458.448
4.00181 6.48364 458.585
81.5276 217.881 460.418
24.2568 -6.27998 458.428
1.97525 6.48296 458.537
-21.9318 3.84907 458.516
22.3719 -11.7278 458.304
79.485 229.861 460.371
-22.2034 -12.0414 458.22
-22.1193 -10.1237 458.205
83.3006 213.257 460.097
-22.1189 -8.3013 458.196
-22.1505 -6.25537 458.189
-22.118 -0.203097 458.178
-20.4996 4.25136 458.211
-22.1476 -4.29423 458.13
-22.1181 1.82138 458.178
-16.2476 5.46573 458.198
20.3959 5.46526 458.159
-22.1152 -2.22724 458.121
-9.76783 5.8699 458.14
81.2979 219.804 459.94
22.7517 4.3845 458.042
14.1152 5.86806 457.996
179.475 204.911 459.616
23.0035 -10.5166 457.684
215.288 204.582 459.333
23.0017 0.606022 457.648
23.4021 -2.62896 457.569
12.8909 5.86357 457.646
-21.2758 -11.9271 457.487
21.3814 5.05412 457.592
-19.4623 5.05447 457.623
-21.1408 -10.4446 457.483
-21.0742 -8.2888 457.499
-21.1427 -4.11125 457.524
-21.0782 3.03219 457.587
-20.465 -13.1385 457.438
-21.1412 -6.33456 457.491
21.5715 -11.5189 457.334
-21.0708 -0.202799 457.426
-21.0693 -2.22385 457.394
-21.0703 1.81838 457.416
81.1169 222.602 459.243
82.9917 214.571 459.139
211.991 204.481 458.91
210.223 204.494 458.909
168.035 204.379 458.877
-7.72854 5.85859 457.257
22.0303 -10.2042 457.064
169.978 204.382 458.833
85.1254 210.709 458.975
126.152 203.946 458.867
88.969 206.834 458.926
11.8679 5.85765 457.184
92.6122 204.791 458.893
178.144 204.752 458.804
186.247 204.501 458.788
114.095 203.556 458.85
21.9978 3.66708 457.128
22.167 1.8172 457.106
130.154 204.101 458.822
80.9472 223.995 459.049
158.157 204.314 458.781
127.956 204.028 458.805
22.1311 -0.23623 457.061
116.092 203.591 458.805
142.05 204.332 458.773
112.053 203.531 458.794
22.1618 -4.24112 456.997
174.062 204.718 458.729
22.1604 -6.26 456.971
22.1593 -8.2787 456.947
176.08 204.708 458.706
206.388 204.489 458.671
20.0101 5.11556 457.054
144.063 204.312 458.728
22.1607 -2.22168 456.976
194.1 204.486 458.663
160.062 204.295 458.689
164.112 204.291 458.679
86.7812 208.667 458.795
162.083 204.288 458.673
182.139 204.684 458.653
110.116 203.511 458.699
146.053 204.143 458.662
180.216 204.696 458.63
90.1155 206.117 458.733
108.177 203.483 458.686
-17.8211 5.04771 457.011
188.056 204.52 458.599
166.025 204.284 458.614
208.243 204.494 458.568
96.1071 203.743 458.674
118.162 203.663 458.635
140.087 204.285 458.616
80.7025 225.982 458.867
84.4582 211.761 458.721
202.188 204.468 458.531
82.5881 215.901 458.757
-19.6459 3.70817 456.939
172.123 204.509 458.533
94.2043 204.286 458.605
156.157 204.224 458.53
106.123 203.431 458.57
216.302 205.16 458.47
98.188 203.4 458.576
10.0433 5.85372 456.877
136.191 204.205 458.537
104.095 203.428 458.562
-19.7749 -12.2403 456.712
204.224 204.477 458.441
152.091 204.206 458.49
87.9709 207.693 458.586
192.063 204.51 458.445
214.092 204.5 458.422
148.056 204.111 458.483
-19.8275 -10.2925 456.71
-19.8314 -0.202485 456.801
-19.8321 1.816 456.818
-19.8297 -4.23892 456.762
91.7716 205.202 458.543
-19.8286 -6.25678 456.739
-5.70277 5.85313 456.831
134.261 204.202 458.481
154.107 204.193 458.46
-19.8298 -2.22067 456.763
20.0527 -11.7581 456.626
132.101 204.139 458.462
138.102 204.19 458.454
-19.8266 -8.27411 456.69
81.4494 221.889 458.67
196.12 204.512 458.39
150.114 204.113 458.432
85.9337 209.79 458.506
200.2 204.462 458.337
81.7859 219.992 458.597
102.126 203.341 458.416
190.042 204.515 458.325
83.5786 213.625 458.501
184.026 204.529 458.306
124.098 203.741 458.355
198.12 204.492 458.272
82.2027 217.857 458.511
80.1686 229.729 458.619
-13.7724 5.44756 456.675
18.304 -12.3041 456.476
80.512 227.789 458.575
100.195 203.326 458.332
120.102 203.657 458.231
8.01837 5.84943 456.542
18.192 5.26611 456.48
-15.7126 5.17557 456.395
-3.68031 5.84718 456.367
20.2207 3.88521 456.281
20.4316 -10.3298 456.131
5.99731 5.84558 456.242
-1.86507 5.84556 456.24
81.381 223.792 458.12
20.5031 -8.26235 456.043
-18.0497 3.99545 456.187
3.98033 5.84419 456.133
20.334 -0.159727 456.054
20.5011 -6.24667 455.998
20.4065 -4.16078 456.003
20.3672 -2.28411 456.007
-18.3033 -12.3706 455.95
20.301 1.81288 456.027
1.96467 5.84351 456.08
-0.0504794 5.8435 456.079
16.0705 5.44013 456.052
-12.0071 5.44018 456.056
-18.3833 -6.24581 455.936
-18.4044 -8.17032 455.905
-18.4033 -10.3185 455.878
83.2903 215.23 457.806
-18.3832 -0.202032 455.935
-18.3284 1.8857 455.939
-18.3264 -2.21638 455.889
-18.3802 -4.23056 455.861
85.29 210.925 457.682
81.2662 225.34 457.799
18.6818 4.33001 455.855
19.4946 -10.1757 455.499
-16.5601 4.63012 455.661
19.4723 -6.23989 455.501
19.4207 -4.37786 455.47
19.4692 -8.25121 455.429
17.2594 5.03133 455.529
19.3835 -2.04177 455.441
19.2694 3.42065 455.462
19.2674 1.81048 455.416
19.3334 -0.336057 455.39
92.8656 204.819 457.144
-17.4047 -12.2182 455.28
-17.4006 -10.2345 455.261
-17.3518 -4.22536 455.3
-17.2028 3.47014 455.352
-17.3519 -0.201778 455.303
-17.3995 -8.29795 455.229
-17.3219 -2.21332 455.27
-17.3228 1.75247 455.293
-17.3484 -6.23586 455.21
114.123 203.512 456.971
17.9744 -11.7185 455.093
130.103 203.934 456.923
168.108 204.293 456.871
176.177 204.689 456.855
80.9892 228.374 457.149
160.092 204.26 456.848
144.168 204.261 456.85
116.225 203.532 456.864
166.069 204.268 456.815
90.3865 206.377 456.867
17.933 3.72456 455.104
142.244 204.257 456.791
164.033 204.247 456.768
212.213 204.393 456.709
146.069 204.244 456.762
170.216 204.372 456.735
174.111 204.634 456.731
140.215 204.242 456.757
162 204.227 456.725
96.1366 203.907 456.783
112.071 203.455 456.753
84.7647 212.357 456.85
178.109 204.667 456.681
82.9044 217.903 456.896
110.137 203.423 456.731
180.194 204.659 456.666
-14.9291 5.02597 455.043
214.304 204.647 456.61
108.112 203.41 456.702
16.0323 5.02518 454.971
208.219 204.363 456.577
205.927 204.414 456.578
104.156 203.369 456.661
128.071 203.783 456.633
216.083 205.326 456.54
-13.7202 5.02497 454.953
156.183 204.134 456.565
18.0375 -2.21137 454.838
88.2335 208.094 456.669
154.276 204.155 456.563
98.0964 203.48 456.614
18.0388 1.80825 454.87
132.293 204.042 456.582
106.07 203.364 456.599
18.034 -10.2484 454.751
172.131 204.568 456.535
204.111 204.399 456.494
18.0351 -6.22994 454.777
190.041 204.452 456.506
200.174 204.415 456.493
158.14 204.182 456.534
202.091 204.396 456.488
185.986 204.392 456.503
138.134 204.149 456.55
18.0339 -8.23891 454.749
136.115 204.147 456.546
152.242 204.132 456.511
94.1256 204.527 456.572
18.0355 -0.201567 454.787
92.0761 205.458 456.57
82.5803 219.928 456.708
194.035 204.405 456.446
192.131 204.394 456.445
86.4203 210.024 456.603
18.033 -4.21993 454.725
150.083 204.059 456.472
81.5311 226.027 456.734
120.163 203.588 456.485
182.06 204.496 456.423
84.1277 214.003 456.575
148.042 204.056 456.417
198.144 204.408 456.349
134.059 204.088 456.412
102.199 203.289 456.43
82.2648 221.929 456.607
-9.82873 5.3576 454.735
187.955 204.426 456.318
-15.6886 3.78352 454.707
-15.7168 -12.2526 454.558
124.162 203.659 456.355
81.9906 223.843 456.579
100.169 203.263 456.371
196.093 204.409 456.28
83.5061 215.977 456.499
126.085 203.676 456.343
85.4642 211.458 456.453
89.488 207.108 456.402
183.947 204.403 456.267
-11.5871 5.1366 454.646
87.3335 209.116 456.384
14.0104 5.22206 454.594
-15.714 -10.242 454.471
16.0123 -11.8469 454.402
-15.7129 -8.2333 454.442
-15.7151 -0.201473 454.505
-15.7136 -4.21751 454.46
-15.7149 1.80686 454.499
-15.7124 -6.22512 454.425
-15.7128 -2.20933 454.436
12.1323 5.35447 454.475
13.9999 -12.3452 454.267
-7.6799 5.42019 454.381
16.1173 3.86821 454.278
81.4922 227.829 456.234
83.3189 217.66 456.117
16.2431 -10.2759 453.996
-13.8108 3.90791 454.155
16.3499 -6.24464 454.021
16.1789 -4.17322 454.007
16.1796 -0.181213 454.027
16.1862 -8.26653 453.946
16.2078 -2.20703 453.959
9.98014 5.41585 454.017
16.15 1.7665 453.974
-14.1256 1.87154 453.983
-14.0886 -10.2284 453.872
-13.9696 -12.3275 453.84
-14.2222 -8.22287 453.866
-14.0889 -4.17572 453.883
-14.1684 -6.21738 453.857
-14.0897 -0.143904 453.908
-5.86712 5.41492 453.938
-14.0882 -2.17568 453.859
83.3141 218.882 455.723
-11.9495 4.4783 453.873
7.87089 5.41389 453.852
6.36674 5.41377 453.842
-4.66265 5.41385 453.849
14.5862 4.14309 453.766
15.3534 -10.1075 453.587
3.95914 5.41216 453.708
15.3808 -8.08355 453.548
0.350623 5.41183 453.679
15.3587 -6.16866 453.554
82.8756 220.8 455.526
15.3138 -2.20503 453.544
15.2604 -0.281226 453.544
-13.0745 -10.2197 453.482
15.2586 -4.36884 453.491
15.1803 3.40622 453.547
-13.0768 3.30613 453.56
-13.1394 -12.0213 453.414
15.1791 2.00327 453.511
-13.3608 -4.23713 453.478
-13.3737 -8.21501 453.431
-13.3885 -6.21171 453.448
-13.3092 1.76948 453.509
-13.2406 -2.23803 453.448
-9.66828 5.00876 453.485
-13.1934 -0.200964 453.433
11.7686 5.0073 453.353
215.983 205.63 454.918
13.7801 3.69953 453.281
176.235 204.627 454.921
146.087 204.229 454.931
-11.7731 3.59111 453.259
213.779 204.585 454.827
13.9667 -0.200866 453.177
13.9671 1.80161 453.19
166.181 204.254 454.864
131.938 203.833 454.895
82.9142 222.091 455.107
114.152 203.462 454.89
-11.9283 -12.1551 453.066
13.9652 -2.203 453.128
13.964 -6.20675 453.088
162.135 204.188 454.838
13.9633 -8.20835 453.065
144.051 204.194 454.852
13.9624 -10.2097 453.037
112.099 203.395 454.863
164.13 204.17 454.8
160.111 204.17 454.8
13.9631 -4.20455 453.061
178.302 204.586 454.781
168.278 204.297 454.773
210.087 204.31 454.727
142.023 204.168 454.793
110.077 203.374 454.816
-11.8604 -8.20761 453.022
174.16 204.551 454.752
172.151 204.551 454.753
116.069 203.467 454.8
170.138 204.506 454.742
-11.859 -10.2081 452.969
156.069 204.141 454.733
86.8293 210.48 454.85
180.186 204.546 454.691
-11.9083 -0.238933 453.033
-11.9069 -6.20528 452.977
158.068 204.127 454.704
-11.8596 -4.20388 452.991
-11.9087 1.78198 453.044
148.116 204.112 454.71
187.99 204.312 454.668
108.047 203.335 454.729
-11.859 -2.20226 452.968
88.6548 208.409 454.762
9.95794 5.00341 453
138.168 204.112 454.671
206.172 204.313 454.597
106.118 203.295 454.69
96.111 204.101 454.701
90.7166 206.599 454.727
94.511 204.682 454.696
130.037 203.723 454.649
192.084 204.349 454.589
118.259 203.503 454.655
84.8425 214.102 454.784
208.112 204.306 454.565
-8.05645 5.00311 452.974
140.073 204.113 454.623
154.006 204.069 454.573
98.0847 203.595 454.621
134.325 203.939 454.583
11.9781 -11.8538 452.75
102.192 203.279 454.604
82.7441 224.014 454.805
190.155 204.33 454.509
104.195 203.269 454.581
200.063 204.33 454.486
195.988 204.351 454.487
100.174 203.261 454.564
8.02063 5.06868 452.861
212.143 204.361 454.453
128.084 203.648 454.531
86.0005 211.877 454.637
204.079 204.33 454.44
93.5411 205.057 454.539
136.192 204.006 454.484
87.642 209.589 454.58
152.07 204.039 454.457
126.15 203.603 454.48
193.907 204.347 454.41
214.536 204.989 454.386
89.8279 207.459 454.521
92.0681 205.885 454.504
-10.0201 3.76753 452.778
-3.90126 5.15128 452.78
150.138 203.998 454.415
184.038 204.329 454.381
11.9527 3.80049 452.74
-2.05094 5.20116 452.765
84.3338 215.804 454.581
5.90696 5.17874 452.753
186.058 204.377 454.366
82.5044 225.864 454.645
83.5331 219.893 454.588
201.97 204.301 454.318
198.062 204.335 454.321
4.00752 5.17174 452.697
83.9417 217.824 454.533
1.95002 5.2001 452.673
181.987 204.317 454.283
122.202 203.553 454.32
124.205 203.545 454.301
-6.04989 4.9991 452.611
11.945 -10.1964 452.446
82.191 227.846 454.525
11.9474 1.79898 452.538
11.9459 -4.19912 452.48
11.9466 -0.200599 452.507
11.9452 -6.19808 452.452
11.9442 -8.19662 452.416
-0.150337 5.14853 452.539
120.166 203.504 454.21
-10.0456 -8.19663 452.419
-10.0464 -2.19973 452.454
11.9444 -2.19957 452.424
-10.0469 1.79884 452.482
-10.0444 -10.1945 452.367
-10.0464 -0.200518 452.455
85.4078 213.469 454.276
-10.0452 -4.19847 452.402
-10.0443 -6.1969 452.366
83.3438 221.66 454.29
9.93974 -11.9885 452.17
-8.07745 3.83002 452.29
9.94164 3.7965 452.259
9.96718 -10.1676 451.906
-8.08991 -8.1184 451.933
9.96788 -4.19413 451.937
-8.05453 -6.17436 451.933
9.93485 -2.1973 451.949
-8.03713 -10.1839 451.893
9.93562 1.79686 451.983
10.0861 -6.17161 451.908
9.96648 -8.22012 451.875
-8.07133 -2.21385 451.947
-8.07102 -4.16076 451.928
8.08533 -12.3285 451.825
9.93428 -0.200328 451.922
-8.10749 1.77932 451.948
-8.03755 -0.200328 451.918
7.97081 3.81033 451.932
-6.12946 4.01543 451.923
6.11068 4.47743 451.858
-0.449332 4.59121 451.832
8.57213 -8.42319 451.704
-4.21407 4.4771 451.825
-2.24611 4.59106 451.817
8.83138 -6.28747 451.694
-6.83575 -7.98378 451.683
8.53284 -0.200229 451.736
-6.63632 -5.9881 451.693
3.94243 4.59061 451.773
-6.83605 -4.05893 451.702
8.48228 -1.9466 451.701
8.332 -4.02056 451.67
-6.67657 -0.439723 451.714
83.3352 223.296 453.646
1.94608 4.59036 451.749
8.37261 1.51624 451.707
-6.51615 -1.87656 451.663
-6.76937 1.86217 451.692
82.9318 226.296 453.631
-7.23391 -4.98939 451.621
-7.43251 -8.97927 451.563
-7.6324 -6.58528 451.585
7.13401 3.39186 451.635
-7.23345 -1.79646 451.592
3.54198 4.98835 451.637
7.97833 -6.18548 451.53
7.86987 -8.06004 451.487
7.88585 -4.25671 451.517
-7.2333 2.9924 451.583
7.7057 -2.31983 451.513
-7.23306 1.99465 451.567
-6.03438 -10.1739 451.448
7.97473 -10.1888 451.432
7.55975 -0.143083 451.522
7.67389 2.05156 451.531
-5.98255 -6.20191 451.462
-5.96471 -8.19605 451.425
-5.92549 -4.20769 451.441
-5.91482 -2.27467 451.456
-5.875 -0.140306 451.468
-5.8068 3.21975 451.485
-5.80333 1.77366 451.446
84.8698 215.904 453.277
5.86712 3.52315 451.4
213.305 204.748 452.965
6.00063 -6.23325 451.224
5.97699 -8.19004 451.205
-3.97194 3.5225 451.318
6.04783 -2.22706 451.236
-4.03758 -4.18744 451.218
6.01138 -0.19997 451.241
6.04724 -4.20387 451.195
-4.03696 -10.1671 451.149
-4.03764 -2.19374 451.219
5.97765 1.7632 451.242
-4.03725 -6.18064 451.18
6.03885 -10.1305 451.132
-4.03769 -0.199994 451.23
158.245 204.123 452.91
94.9551 204.755 452.981
174.249 204.515 452.894
110.226 203.339 452.949
-4.03694 -8.17362 451.145
3.93775 3.67897 451.243
215.583 205.962 452.847
-4.03761 1.79378 451.224
160.229 204.101 452.861
112.134 203.356 452.897
3.93722 1.79362 451.182
-0.0153064 3.71817 451.201
176.209 204.543 452.835
-2.0057 3.63552 451.194
89.0121 208.746 452.955
178.169 204.538 452.823
108.207 203.306 452.875
170.213 204.475 452.804
162.225 204.126 452.796
156.2 204.065 452.782
188.089 204.25 452.749
172.254 204.513 452.768
168.105 204.401 452.762
144.159 204.126 452.77
134.189 203.739 452.77
3.98212 -0.230519 451.057
-2.04301 -2.19292 451.042
106.185 203.267 452.788
132.187 203.657 452.764
-2.04265 -10.1628 450.959
140.185 204.051 452.751
4.0244 -2.16333 451.024
-2.04267 -8.17034 450.964
4.02409 -6.13368 450.976
212.164 204.453 452.667
-2.04287 -4.18542 450.999
1.9431 3.71708 451.066
-2.04274 -6.17793 450.979
148.176 204.168 452.716
4.02402 -4.1703 450.968
-2.04299 1.79305 451.027
114.155 203.368 452.729
100.058 203.388 452.739
1.94297 1.79299 451.012
-0.0500519 -10.1614 450.896
-0.0500256 -2.19252 450.967
164.206 204.15 452.665
150.097 204.084 452.678
3.93499 -8.16915 450.9
130.164 203.622 452.686
1.94243 -6.17699 450.916
214.218 205.188 452.611
1.94254 -8.16907 450.894
166.219 204.203 452.644
-2.04272 -0.19984 450.967
-0.0499978 -0.199789 450.962
1.94225 -10.1608 450.867
194.338 204.232 452.61
-0.0500302 -6.1768 450.899
1.94253 -4.18464 450.914
-0.0500755 1.79272 450.964
-0.0499967 -8.16854 450.864
116.138 203.409 452.66
-0.0500794 -4.18439 450.897
104.156 203.212 452.664
1.94242 -2.19222 450.91
86.6788 212.115 452.759
1.94253 -0.199779 450.922
88.2179 209.843 452.731
96.1451 204.379 452.67
98.1951 203.757 452.662
189.985 204.266 452.563
102.15 203.2 452.638
206.002 204.202 452.532
154.131 203.974 452.581
128.139 203.583 452.6
126.138 203.58 452.594
92.2473 206.311 452.651
4.06186 -10.1873 450.78
90.1444 207.894 452.655
192.111 204.248 452.503
93.8963 205.315 452.606
84.7899 217.914 452.719
196.092 204.266 452.462
210.056 204.228 452.434
204.007 204.256 452.44
84.444 219.805 452.692
181.914 204.235 452.449
152.04 203.98 452.472
180.073 204.312 452.443
138.097 203.922 452.464
124.104 203.525 452.471
197.986 204.232 452.388
118.013 203.466 452.462
186.073 204.269 452.397
83.7818 223.844 452.641
85.9521 213.88 452.539
202.073 204.233 452.317
122.083 203.488 452.388
184.014 204.249 452.304
120.077 203.475 452.361
85.4087 215.703 452.495
84.1695 221.867 452.53
200.098 204.235 452.232
83.502 225.852 452.506
91.2874 207.058 452.328
136.118 203.795 452.247
87.4711 211.21 452.231
89.3909 209.227 451.833
85.3927 217.599 451.805
84.9409 220.258 451.526
110.15 203.261 450.998
211.936 204.569 450.905
134.023 203.655 450.94
170.093 204.409 450.894
174.18 204.421 450.879
215.299 206.583 450.854
168.18 204.376 450.869
172.074 204.418 450.864
84.804 222.129 451.101
166.19 204.322 450.822
108.126 203.204 450.871
144.095 204.066 450.841
136.087 203.664 450.819
142.076 203.982 450.781
158.155 204.045 450.751
132.125 203.603 450.754
178.094 204.34 450.701
106.199 203.209 450.762
88.6727 210.375 450.838
104.061 203.206 450.756
92.6711 206.556 450.796
96.3502 204.612 450.768
146.153 204.098 450.71
112.139 203.3 450.718
214.133 205.743 450.627
130.1 203.544 450.693
128.193 203.515 450.679
150.12 204.132 450.66
162.113 204.097 450.645
90.5106 208.36 450.744
152.207 204.093 450.636
124.093 203.482 450.646
86.7699 214.006 450.78
126.189 203.494 450.633
164.222 204.217 450.589
102.098 203.272 450.644
193.96 204.199 450.549
187.986 204.197 450.545
122.108 203.5 450.595
185.991 204.192 450.535
204.286 204.169 450.511
160.071 204.056 450.554
98.1099 204.04 450.617
140.194 203.84 450.566
100.173 203.506 450.604
154.169 204.054 450.549
114.048 203.273 450.584
206.235 204.128 450.492
156.085 203.989 450.541
116.145 203.341 450.573
86.2282 215.923 450.709
180.098 204.233 450.506
182.04 204.144 450.484
192.081 204.127 450.472
94.1647 205.68 450.586
210.129 204.247 450.448
84.7284 224.04 450.751
196 204.21 450.455
215.702 207.591 450.448
87.884 211.871 450.607
190.103 204.174 450.414
91.7561 207.348 450.532
202.005 204.155 450.382
95.4169 205.066 450.5
184.021 204.169 450.364
89.6179 209.515 450.505
118.168 203.398 450.418
120.155 203.392 450.405
208.239 204.109 450.32
148.074 204.077 450.381
198.132 204.151 450.324
200.107 204.136 450.29
218.258 222.399 450.43
84.4913 225.824 450.587
138.263 203.733 450.329
85.8799 217.861 450.489
85.5697 219.909 450.505
212.796 205.088 450.196
85.3128 221.863 450.33
87.3665 213.567 450.22
219.362 222.79 449.79
216.961 221.581 449.756
85.4092 223.187 449.789
92.9149 206.786 449.564
90.8738 208.647 449.294
86.9129 215.818 449.343
96.633 204.756 449.12
211.634 204.74 448.997
136.249 203.595 449.011
176.215 204.343 448.957
164.169 204.29 448.969
170 204.331 448.897
158.138 204.157 448.89
210.23 204.396 448.775
215.306 209.604 448.792
124.185 203.451 448.829
110.064 203.217 448.837
146.097 203.984 448.789
144.046 203.87 448.782
166.151 204.289 448.761
126.179 203.476 448.795
174.121 204.375 448.749
132.056 203.532 448.783
160.128 204.178 448.754
130.07 203.487 448.772
128.244 203.445 448.767
156.071 204.118 448.738
86.7795 218.025 448.929
213.711 206.265 448.691
218 222.66 448.829
108.018 203.146 448.765
134.213 203.575 448.741
106.032 203.121 448.752
162.158 204.236 448.674
88.6794 212.139 448.795
182.096 204.111 448.607
122.174 203.412 448.654
90.2295 209.851 448.725
186.174 204.172 448.573
214.603 207.516 448.567
192.094 204.125 448.558
190.022 204.143 448.558
100.126 203.773 448.645
178.134 204.147 448.567
102.117 203.371 448.638
142.071 203.766 448.6
98.1339 204.354 448.638
184.159 204.117 448.541
